-2128.000000 192.000000 -160.000000
-2128.673722 190.147266 -160.336861
-2129.347443 188.294532 -160.673722
-2130.021165 186.441797 -161.010582
-2130.694886 184.589063 -161.347443
-2131.368608 182.736329 -161.684304
-2132.042329 180.883595 -162.021165
-2132.716051 179.030860 -162.358025
-2133.389772 177.178126 -162.694886
-2134.063494 175.325392 -163.031747
-2134.737215 173.472658 -163.368608
-2135.410937 171.619924 -163.705468
-2136.084658 169.767189 -164.042329
-2136.758380 167.914455 -164.379190
-2137.432102 166.061721 -164.716051
-2138.105823 164.208987 -165.052912
-2138.779545 162.356252 -165.389772
-2139.453266 160.503518 -165.726633
-2140.126988 158.650784 -166.063494
-2140.800709 156.798050 -166.400355
-2141.474431 154.945315 -166.737215
-2142.148152 153.092581 -167.074076
-2142.821874 151.239847 -167.410937
-2143.495595 149.387113 -167.747798
-2144.169317 147.534379 -168.084658
-2144.843038 145.681644 -168.421519
-2145.516760 143.828910 -168.758380
-2146.190481 141.976176 -169.095241
-2146.864203 140.123442 -169.432102
-2147.537925 138.270707 -169.768962
-2148.211646 136.417973 -170.105823
-2148.885368 134.565239 -170.442684
-2149.559089 132.712505 -170.779545
-2150.232811 130.859771 -171.116405
-2150.906532 129.007036 -171.453266
-2151.580254 127.154302 -171.790127
-2152.253975 125.301568 -172.126988
-2152.927697 123.448834 -172.463848
-2153.601418 121.596099 -172.800709
-2154.275140 119.743365 -173.137570
-2154.948861 117.890631 -173.474431
-2155.622583 116.037897 -173.811292
-2156.296305 114.185162 -174.148152
-2156.970026 112.332428 -174.485013
-2157.643748 110.479694 -174.821874
-2158.317469 108.626960 -175.158735
-2158.991191 106.774226 -175.495595
-2160.000000 104.000000 -176.000000
-2160.421887 104.174746 -177.947171
-2160.843774 104.349492 -179.894342
-2161.265661 104.524238 -181.841513
-2161.687548 104.698984 -183.788684
-2162.109435 104.873731 -185.735855
-2162.531322 105.048477 -187.683026
-2162.953209 105.223223 -189.630197
-2163.375096 105.397969 -191.577368
-2163.796984 105.572715 -193.524539
-2164.218871 105.747461 -195.471711
-2164.640758 105.922207 -197.418882
-2165.062645 106.096953 -199.366053
-2165.484532 106.271700 -201.313224
-2165.906419 106.446446 -203.260395
-2166.328306 106.621192 -205.207566
-2166.750193 106.795938 -207.154737
-2167.172080 106.970684 -209.101908
-2167.593967 107.145430 -211.049079
-2168.015854 107.320176 -212.996250
-2168.437741 107.494922 -214.943421
-2168.859628 107.669669 -216.890592
-2169.281515 107.844415 -218.837763
-2169.703402 108.019161 -220.784934
-2170.125289 108.193907 -222.732105
-2170.547177 108.368653 -224.679276
-2170.969064 108.543399 -226.626447
-2171.390951 108.718145 -228.573618
-2171.812838 108.892891 -230.520789
-2172.234725 109.067637 -232.467960
-2172.656612 109.242384 -234.415132
-2173.078499 109.417130 -236.362303
-2173.500386 109.591876 -238.309474
-2173.922273 109.766622 -240.256645
-2174.344160 109.941368 -242.203816
-2174.766047 110.116114 -244.150987
-2175.187934 110.290860 -246.098158
-2175.609821 110.465606 -248.045329
-2176.031708 110.640353 -249.992500
-2176.453595 110.815099 -251.939671
-2176.875482 110.989845 -253.886842
-2177.297370 111.164591 -255.834013
-2177.719257 111.339337 -257.781184
-2178.141144 111.514083 -259.728355
-2178.563031 111.688829 -261.675526
-2178.984918 111.863575 -263.622697
-2179.406805 112.038322 -265.569868
-2179.828692 112.213068 -267.517039
-2180.250579 112.387814 -269.464210
-2180.672466 112.562560 -271.411381
-2181.094353 112.737306 -273.358553
-2181.516240 112.912052 -275.305724
-2181.938127 113.086798 -277.252895
-2182.360014 113.261544 -279.200066
-2182.781901 113.436290 -281.147237
-2183.203788 113.611037 -283.094408
-2183.625675 113.785783 -285.041579
-2184.047562 113.960529 -286.988750
-2184.469450 114.135275 -288.935921
-2184.891337 114.310021 -290.883092
-2185.313224 114.484767 -292.830263
-2185.735111 114.659513 -294.777434
-2186.156998 114.834259 -296.724605
-2186.578885 115.009006 -298.671776
-2187.000772 115.183752 -300.618947
-2187.422659 115.358498 -302.566118
-2187.844546 115.533244 -304.513289
-2188.266433 115.707990 -306.460460
-2188.688320 115.882736 -308.407631
-2189.110207 116.057482 -310.354803
-2189.532094 116.232228 -312.301974
-2189.953981 116.406975 -314.249145
-2190.375868 116.581721 -316.196316
-2190.797755 116.756467 -318.143487
-2191.219643 116.931213 -320.090658
-2191.641530 117.105959 -322.037829
-2192.063417 117.280705 -323.985000
-2192.485304 117.455451 -325.932171
-2192.907191 117.630197 -327.879342
-2193.329078 117.804943 -329.826513
-2193.750965 117.979690 -331.773684
-2194.172852 118.154436 -333.720855
-2194.594739 118.329182 -335.668026
-2195.016626 118.503928 -337.615197
-2195.438513 118.678674 -339.562368
-2195.860400 118.853420 -341.509539
-2196.282287 119.028166 -343.456710
-2196.704174 119.202912 -345.403881
-2197.126061 119.377659 -347.351052
-2197.547948 119.552405 -349.298224
-2197.969835 119.727151 -351.245395
-2198.391723 119.901897 -353.192566
-2198.813610 120.076643 -355.139737
-2199.235497 120.251389 -357.086908
-2199.657384 120.426135 -359.034079
-2200.079271 120.600881 -360.981250
-2200.501158 120.775628 -362.928421
-2200.923045 120.950374 -364.875592
-2201.344932 121.125120 -366.822763
-2201.766819 121.299866 -368.769934
-2202.188706 121.474612 -370.717105
-2202.610593 121.649358 -372.664276
-2203.032480 121.824104 -374.611447
-2203.454367 121.998850 -376.558618
-2203.876254 122.173596 -378.505789
-2204.298141 122.348343 -380.452960
-2204.720028 122.523089 -382.400131
-2205.141916 122.697835 -384.347302
-2205.563803 122.872581 -386.294473
-2205.985690 123.047327 -388.241645
-2206.407577 123.222073 -390.188816
-2206.829464 123.396819 -392.135987
-2207.251351 123.571565 -394.083158
-2207.673238 123.746312 -396.030329
-2208.095125 123.921058 -397.977500
-2208.517012 124.095804 -399.924671
-2208.938899 124.270550 -401.871842
-2209.360786 124.445296 -403.819013
-2209.782673 124.620042 -405.766184
-2210.204560 124.794788 -407.713355
-2210.626447 124.969534 -409.660526
-2211.048334 125.144281 -411.607697
-2211.470221 125.319027 -413.554868
-2211.892109 125.493773 -415.502039
-2212.313996 125.668519 -417.449210
-2212.735883 125.843265 -419.396381
-2213.157770 126.018011 -421.343552
-2213.579657 126.192757 -423.290723
-2214.001544 126.367503 -425.237895
-2214.423431 126.542249 -427.185066
-2214.845318 126.716996 -429.132237
-2215.267205 126.891742 -431.079408
-2215.689092 127.066488 -433.026579
-2216.110979 127.241234 -434.973750
-2216.532866 127.415980 -436.920921
-2216.954753 127.590726 -438.868092
-2217.376640 127.765472 -440.815263
-2217.798527 127.940218 -442.762434
-2218.220414 128.114965 -444.709605
-2218.642301 128.289711 -446.656776
-2219.064189 128.464457 -448.603947
-2219.486076 128.639203 -450.551118
-2219.907963 128.813949 -452.498289
-2220.329850 128.988695 -454.445460
-2220.751737 129.163441 -456.392631
-2221.173624 129.338187 -458.339802
-2221.595511 129.512934 -460.286973
-2222.017398 129.687680 -462.234144
-2222.439285 129.862426 -464.181316
-2222.861172 130.037172 -466.128487
-2223.283059 130.211918 -468.075658
-2223.704946 130.386664 -470.022829
-2224.126833 130.561410 -471.970000
-2224.548720 130.736156 -473.917171
-2224.970607 130.910902 -475.864342
-2225.392494 131.085649 -477.811513
-2225.814382 131.260395 -479.758684
-2226.236269 131.435141 -481.705855
-2226.658156 131.609887 -483.653026
-2227.080043 131.784633 -485.600197
-2227.501930 131.959379 -487.547368
-2227.923817 132.134125 -489.494539
-2228.345704 132.308871 -491.441710
-2228.767591 132.483618 -493.388881
-2229.189478 132.658364 -495.336052
-2229.611365 132.833110 -497.283223
-2230.033252 133.007856 -499.230394
-2230.455139 133.182602 -501.177565
-2230.877026 133.357348 -503.124737
-2231.298913 133.532094 -505.071908
-2231.720800 133.706840 -507.019079
-2232.142687 133.881587 -508.966250
-2232.564574 134.056333 -510.913421
-2232.986462 134.231079 -512.860592
-2233.408349 134.405825 -514.807763
-2233.830236 134.580571 -516.754934
-2234.252123 134.755317 -518.702105
-2234.674010 134.930063 -520.649276
-2235.095897 135.104809 -522.596447
-2235.517784 135.279555 -524.543618
-2235.939671 135.454302 -526.490789
-2236.361558 135.629048 -528.437960
-2236.783445 135.803794 -530.385131
-2237.205332 135.978540 -532.332302
-2237.627219 136.153286 -534.279473
-2238.049106 136.328032 -536.226644
-2238.470993 136.502778 -538.173815
-2238.892880 136.677524 -540.120987
-2239.314767 136.852271 -542.068158
-2239.736655 137.027017 -544.015329
-2240.158542 137.201763 -545.962500
-2240.580429 137.376509 -547.909671
-2241.002316 137.551255 -549.856842
-2241.424203 137.726001 -551.804013
-2241.846090 137.900747 -553.751184
-2242.267977 138.075493 -555.698355
-2242.689864 138.250240 -557.645526
-2243.111751 138.424986 -559.592697
-2243.533638 138.599732 -561.539868
-2243.955525 138.774478 -563.487039
-2244.377412 138.949224 -565.434210
-2244.799299 139.123970 -567.381381
-2245.221186 139.298716 -569.328552
-2245.643073 139.473462 -571.275723
-2246.064960 139.648208 -573.222894
-2246.486848 139.822955 -575.170065
-2246.908735 139.997701 -577.117236
-2247.330622 140.172447 -579.064408
-2247.752509 140.347193 -581.011579
-2248.174396 140.521939 -582.958750
-2248.596283 140.696685 -584.905921
-2249.018170 140.871431 -586.853092
-2249.440057 141.046177 -588.800263
-2249.861944 141.220924 -590.747434
-2250.283831 141.395670 -592.694605
-2250.705718 141.570416 -594.641776
-2251.127605 141.745162 -596.588947
-2251.549492 141.919908 -598.536118
-2251.971379 142.094654 -600.483289
-2252.393266 142.269400 -602.430460
-2252.815153 142.444146 -604.377631
-2253.237040 142.618893 -606.324802
-2253.658928 142.793639 -608.271973
-2254.080815 142.968385 -610.219144
-2254.502702 143.143131 -612.166315
-2254.924589 143.317877 -614.113486
-2255.346476 143.492623 -616.060657
-2255.768363 143.667369 -618.007829
-2256.190250 143.842115 -619.955000
-2256.612137 144.016861 -621.902171
-2257.034024 144.191608 -623.849342
-2257.455911 144.366354 -625.796513
-2257.877798 144.541100 -627.743684
-2258.299685 144.715846 -629.690855
-2258.721572 144.890592 -631.638026
-2259.143459 145.065338 -633.585197
-2259.565346 145.240084 -635.532368
-2259.987233 145.414830 -637.479539
-2260.409121 145.589577 -639.426710
-2260.831008 145.764323 -641.373881
-2261.252895 145.939069 -643.321052
-2261.674782 146.113815 -645.268223
-2262.096669 146.288561 -647.215394
-2262.518556 146.463307 -649.162565
-2262.940443 146.638053 -651.109736
-2263.362330 146.812799 -653.056907
-2264.000000 147.076923 -656.000000
-2264.967502 146.114382 -657.462004
-2265.935005 145.151841 -658.924007
-2266.902507 144.189301 -660.386011
-2267.870009 143.226760 -661.848014
-2268.837512 142.264219 -663.310018
-2269.805014 141.301678 -664.772021
-2270.772516 140.339137 -666.234025
-2271.740019 139.376597 -667.696028
-2272.707521 138.414056 -669.158032
-2273.675024 137.451515 -670.620036
-2274.642526 136.488974 -672.082039
-2275.610028 135.526433 -673.544043
-2276.577531 134.563893 -675.006046
-2277.545033 133.601352 -676.468050
-2278.512535 132.638811 -677.930053
-2279.480038 131.676270 -679.392057
-2280.447540 130.713729 -680.854060
-2281.415042 129.751189 -682.316064
-2282.382545 128.788648 -683.778068
-2283.350047 127.826107 -685.240071
-2284.317549 126.863566 -686.702075
-2285.285052 125.901025 -688.164078
-2286.252554 124.938485 -689.626082
-2287.220056 123.975944 -691.088085
-2288.187559 123.013403 -692.550089
-2289.155061 122.050862 -694.012092
-2290.122564 121.088321 -695.474096
-2291.090066 120.125781 -696.936100
-2292.057568 119.163240 -698.398103
-2293.025071 118.200699 -699.860107
-2293.992573 117.238158 -701.322110
-2294.960075 116.275617 -702.784114
-2295.927578 115.313077 -704.246117
-2296.895080 114.350536 -705.708121
-2297.862582 113.387995 -707.170124
-2298.830085 112.425454 -708.632128
-2299.797587 111.462913 -710.094132
-2300.765089 110.500373 -711.556135
-2301.732592 109.537832 -713.018139
-2302.700094 108.575291 -714.480142
-2303.667596 107.612750 -715.942146
-2304.635099 106.650209 -717.404149
-2305.602601 105.687669 -718.866153
-2306.570104 104.725128 -720.328156
-2307.537606 103.762587 -721.790160
-2308.505108 102.800046 -723.252164
-2309.472611 101.837505 -724.714167
-2310.440113 100.874965 -726.176171
-2311.407615 99.912424 -727.638174
-2312.375118 98.949883 -729.100178
-2313.342620 97.987342 -730.562181
-2314.310122 97.024801 -732.024185
-2315.277625 96.062261 -733.486188
-2316.245127 95.099720 -734.948192
-2317.212629 94.137179 -736.410196
-2318.180132 93.174638 -737.872199
-2319.147634 92.212097 -739.334203
-2320.115137 91.249557 -740.796206
-2321.082639 90.287016 -742.258210
-2322.050141 89.324475 -743.720213
-2323.017644 88.361934 -745.182217
-2323.985146 87.399393 -746.644220
-2324.952648 86.436852 -748.106224
-2325.920151 85.474312 -749.568228
-2326.887653 84.511771 -751.030231
-2327.855155 83.549230 -752.492235
-2328.822658 82.586689 -753.954238
-2329.790160 81.624148 -755.416242
-2330.757662 80.661608 -756.878245
-2331.725165 79.699067 -758.340249
-2332.692667 78.736526 -759.802253
-2333.660169 77.773985 -761.264256
-2334.627672 76.811444 -762.726260
-2335.595174 75.848904 -764.188263
-2336.562677 74.886363 -765.650267
-2337.530179 73.923822 -767.112270
-2338.497681 72.961281 -768.574274
-2339.465184 71.998740 -770.036277
-2340.432686 71.036200 -771.498281
-2341.400188 70.073659 -772.960285
-2342.367691 69.111118 -774.422288
-2343.335193 68.148577 -775.884292
-2344.302695 67.186036 -777.346295
-2345.270198 66.223496 -778.808299
-2346.237700 65.260955 -780.270302
-2347.205202 64.298414 -781.732306
-2348.172705 63.335873 -783.194309
-2349.140207 62.373332 -784.656313
-2350.107709 61.410792 -786.118317
-2351.075212 60.448251 -787.580320
-2352.042714 59.485710 -789.042324
-2353.010217 58.523169 -790.504327
-2353.977719 57.560628 -791.966331
-2354.945221 56.598088 -793.428334
-2355.912724 55.635547 -794.890338
-2356.880226 54.673006 -796.352341
-2357.847728 53.710465 -797.814345
-2358.815231 52.747924 -799.276349
-2359.782733 51.785384 -800.738352
-2360.750235 50.822843 -802.200356
-2361.717738 49.860302 -803.662359
-2362.685240 48.897761 -805.124363
-2363.652742 47.935220 -806.586366
-2364.620245 46.972680 -808.048370
-2365.587747 46.010139 -809.510373
-2366.555249 45.047598 -810.972377
-2367.522752 44.085057 -812.434381
-2368.490254 43.122516 -813.896384
-2369.457757 42.159976 -815.358388
-2370.425259 41.197435 -816.820391
-2371.392761 40.234894 -818.282395
-2372.360264 39.272353 -819.744398
-2373.327766 38.309812 -821.206402
-2374.295268 37.347272 -822.668405
-2375.262771 36.384731 -824.130409
-2376.230273 35.422190 -825.592413
-2377.197775 34.459649 -827.054416
-2378.165278 33.497108 -828.516420
-2379.132780 32.534568 -829.978423
-2380.100282 31.572027 -831.440427
-2381.067785 30.609486 -832.902430
-2382.035287 29.646945 -834.364434
-2383.002789 28.684404 -835.826437
-2383.970292 27.721864 -837.288441
-2384.937794 26.759323 -838.750445
-2385.905297 25.796782 -840.212448
-2386.872799 24.834241 -841.674452
-2387.840301 23.871700 -843.136455
-2388.807804 22.909159 -844.598459
-2389.775306 21.946619 -846.060462
-2390.742808 20.984078 -847.522466
-2391.710311 20.021537 -848.984469
-2392.677813 19.058996 -850.446473
-2393.645315 18.096455 -851.908477
-2394.612818 17.133915 -853.370480
-2395.580320 16.171374 -854.832484
-2396.547822 15.208833 -856.294487
-2397.515325 14.246292 -857.756491
-2398.482827 13.283751 -859.218494
-2399.450329 12.321211 -860.680498
-2400.417832 11.358670 -862.142501
-2401.385334 10.396129 -863.604505
-2402.352837 9.433588 -865.066509
-2403.320339 8.471047 -866.528512
-2404.287841 7.508507 -867.990516
-2405.255344 6.545966 -869.452519
-2406.222846 5.583425 -870.914523
-2407.190348 4.620884 -872.376526
-2408.157851 3.658343 -873.838530
-2409.125353 2.695803 -875.300533
-2410.092855 1.733262 -876.762537
-2411.060358 0.770721 -878.224541
-2412.027860 -0.191820 -879.686544
-2412.995362 -1.154361 -881.148548
-2413.962865 -2.116901 -882.610551
-2414.930367 -3.079442 -884.072555
-2415.897869 -4.041983 -885.534558
-2416.865372 -5.004524 -886.996562
-2417.832874 -5.967065 -888.458565
-2418.800377 -6.929605 -889.920569
-2419.767879 -7.892146 -891.382573
-2420.735381 -8.854687 -892.844576
-2421.702884 -9.817228 -894.306580
-2422.670386 -10.779769 -895.768583
-2423.637888 -11.742309 -897.230587
-2424.605391 -12.704850 -898.692590
-2425.572893 -13.667391 -900.154594
-2426.540395 -14.629932 -901.616597
-2427.507898 -15.592473 -903.078601
-2428.475400 -16.555013 -904.540605
-2429.442902 -17.517554 -906.002608
-2430.410405 -18.480095 -907.464612
-2431.377907 -19.442636 -908.926615
-2432.345410 -20.405177 -910.388619
-2433.312912 -21.367717 -911.850622
-2434.280414 -22.330258 -913.312626
-2435.247917 -23.292799 -914.774629
-2436.215419 -24.255340 -916.236633
-2437.182921 -25.217881 -917.698637
-2438.150424 -26.180421 -919.160640
-2439.117926 -27.142962 -920.622644
-2440.085428 -28.105503 -922.084647
-2441.052931 -29.068044 -923.546651
-2442.020433 -30.030585 -925.008654
-2442.987935 -30.993125 -926.470658
-2444.000000 -32.000000 -928.000000
-2443.913806 -33.998142 -928.000000
-2443.827611 -35.996284 -928.000000
-2443.741417 -37.994425 -928.000000
-2443.655223 -39.992567 -928.000000
-2443.569028 -41.990709 -928.000000
-2443.482834 -43.988851 -928.000000
-2443.396640 -45.986992 -928.000000
-2443.310445 -47.985134 -928.000000
-2443.224251 -49.983276 -928.000000
-2443.138056 -51.981418 -928.000000
-2443.051862 -53.979559 -928.000000
-2442.965668 -55.977701 -928.000000
-2442.879473 -57.975843 -928.000000
-2442.793279 -59.973985 -928.000000
-2442.707085 -61.972127 -928.000000
-2442.620890 -63.970268 -928.000000
-2442.534696 -65.968410 -928.000000
-2442.448502 -67.966552 -928.000000
-2442.362307 -69.964694 -928.000000
-2442.276113 -71.962835 -928.000000
-2442.189919 -73.960977 -928.000000
-2442.103724 -75.959119 -928.000000
-2442.017530 -77.957261 -928.000000
-2441.931336 -79.955402 -928.000000
-2441.845141 -81.953544 -928.000000
-2441.758947 -83.951686 -928.000000
-2441.672753 -85.949828 -928.000000
-2441.586558 -87.947970 -928.000000
-2441.500364 -89.946111 -928.000000
-2441.414169 -91.944253 -928.000000
-2441.327975 -93.942395 -928.000000
-2441.241781 -95.940537 -928.000000
-2441.155586 -97.938678 -928.000000
-2441.069392 -99.936820 -928.000000
-2440.983198 -101.934962 -928.000000
-2440.897003 -103.933104 -928.000000
-2440.810809 -105.931245 -928.000000
-2440.724615 -107.929387 -928.000000
-2440.638420 -109.927529 -928.000000
-2440.552226 -111.925671 -928.000000
-2440.466032 -113.923813 -928.000000
-2440.379837 -115.921954 -928.000000
-2440.293643 -117.920096 -928.000000
-2440.207449 -119.918238 -928.000000
-2440.121254 -121.916380 -928.000000
-2440.035060 -123.914521 -928.000000
-2439.948866 -125.912663 -928.000000
-2439.862671 -127.910805 -928.000000
-2439.776477 -129.908947 -928.000000
-2439.690282 -131.907089 -928.000000
-2439.604088 -133.905230 -928.000000
-2439.517894 -135.903372 -928.000000
-2439.431699 -137.901514 -928.000000
-2439.345505 -139.899656 -928.000000
-2439.259311 -141.897797 -928.000000
-2439.173116 -143.895939 -928.000000
-2439.086922 -145.894081 -928.000000
-2439.000728 -147.892223 -928.000000
-2438.914533 -149.890364 -928.000000
-2438.828339 -151.888506 -928.000000
-2438.742145 -153.886648 -928.000000
-2438.655950 -155.884790 -928.000000
-2438.569756 -157.882932 -928.000000
-2438.483562 -159.881073 -928.000000
-2438.397367 -161.879215 -928.000000
-2438.311173 -163.877357 -928.000000
-2438.224978 -165.875499 -928.000000
-2438.138784 -167.873640 -928.000000
-2438.052590 -169.871782 -928.000000
-2437.966395 -171.869924 -928.000000
-2437.880201 -173.868066 -928.000000
-2437.794007 -175.866207 -928.000000
-2437.707812 -177.864349 -928.000000
-2437.621618 -179.862491 -928.000000
-2437.535424 -181.860633 -928.000000
-2437.449229 -183.858775 -928.000000
-2437.363035 -185.856916 -928.000000
-2437.276841 -187.855058 -928.000000
-2437.190646 -189.853200 -928.000000
-2437.104452 -191.851342 -928.000000
-2437.018258 -193.849483 -928.000000
-2436.932063 -195.847625 -928.000000
-2436.845869 -197.845767 -928.000000
-2436.759675 -199.843909 -928.000000
-2436.673480 -201.842050 -928.000000
-2436.587286 -203.840192 -928.000000
-2436.501091 -205.838334 -928.000000
-2436.414897 -207.836476 -928.000000
-2436.328703 -209.834618 -928.000000
-2436.242508 -211.832759 -928.000000
-2436.156314 -213.830901 -928.000000
-2436.070120 -215.829043 -928.000000
-2435.983925 -217.827185 -928.000000
-2435.897731 -219.825326 -928.000000
-2435.811537 -221.823468 -928.000000
-2435.725342 -223.821610 -928.000000
-2435.639148 -225.819752 -928.000000
-2435.552954 -227.817893 -928.000000
-2435.466759 -229.816035 -928.000000
-2435.380565 -231.814177 -928.000000
-2435.294371 -233.812319 -928.000000
-2435.208176 -235.810461 -928.000000
-2435.121982 -237.808602 -928.000000
-2435.035788 -239.806744 -928.000000
-2434.949593 -241.804886 -928.000000
-2434.863399 -243.803028 -928.000000
-2434.777204 -245.801169 -928.000000
-2434.691010 -247.799311 -928.000000
-2434.604816 -249.797453 -928.000000
-2434.518621 -251.795595 -928.000000
-2434.432427 -253.793736 -928.000000
-2434.346233 -255.791878 -928.000000
-2434.260038 -257.790020 -928.000000
-2434.173844 -259.788162 -928.000000
-2434.087650 -261.786304 -928.000000
-2434.001455 -263.784445 -928.000000
-2433.915261 -265.782587 -928.000000
-2433.829067 -267.780729 -928.000000
-2433.742872 -269.778871 -928.000000
-2433.656678 -271.777012 -928.000000
-2433.570484 -273.775154 -928.000000
-2433.484289 -275.773296 -928.000000
-2433.398095 -277.771438 -928.000000
-2433.311900 -279.769580 -928.000000
-2433.225706 -281.767721 -928.000000
-2433.139512 -283.765863 -928.000000
-2433.053317 -285.764005 -928.000000
-2432.967123 -287.762147 -928.000000
-2432.880929 -289.760288 -928.000000
-2432.794734 -291.758430 -928.000000
-2432.708540 -293.756572 -928.000000
-2432.622346 -295.754714 -928.000000
-2432.536151 -297.752855 -928.000000
-2432.449957 -299.750997 -928.000000
-2432.363763 -301.749139 -928.000000
-2432.277568 -303.747281 -928.000000
-2432.191374 -305.745423 -928.000000
-2432.105180 -307.743564 -928.000000
-2432.018985 -309.741706 -928.000000
-2431.932791 -311.739848 -928.000000
-2431.846597 -313.737990 -928.000000
-2431.760402 -315.736131 -928.000000
-2431.674208 -317.734273 -928.000000
-2431.588013 -319.732415 -928.000000
-2431.501819 -321.730557 -928.000000
-2431.415625 -323.728698 -928.000000
-2431.329430 -325.726840 -928.000000
-2431.243236 -327.724982 -928.000000
-2431.157042 -329.723124 -928.000000
-2431.070847 -331.721266 -928.000000
-2430.984653 -333.719407 -928.000000
-2430.898459 -335.717549 -928.000000
-2430.812264 -337.715691 -928.000000
-2430.726070 -339.713833 -928.000000
-2430.639876 -341.711974 -928.000000
-2430.553681 -343.710116 -928.000000
-2430.467487 -345.708258 -928.000000
-2430.381293 -347.706400 -928.000000
-2430.295098 -349.704541 -928.000000
-2430.208904 -351.702683 -928.000000
-2430.122710 -353.700825 -928.000000
-2430.036515 -355.698967 -928.000000
-2429.950321 -357.697109 -928.000000
-2429.864126 -359.695250 -928.000000
-2429.777932 -361.693392 -928.000000
-2429.691738 -363.691534 -928.000000
-2429.605543 -365.689676 -928.000000
-2429.519349 -367.687817 -928.000000
-2429.433155 -369.685959 -928.000000
-2429.346960 -371.684101 -928.000000
-2429.260766 -373.682243 -928.000000
-2429.174572 -375.680384 -928.000000
-2429.088377 -377.678526 -928.000000
-2429.002183 -379.676668 -928.000000
-2428.915989 -381.674810 -928.000000
-2428.829794 -383.672952 -928.000000
-2428.743600 -385.671093 -928.000000
-2428.657406 -387.669235 -928.000000
-2428.571211 -389.667377 -928.000000
-2428.485017 -391.665519 -928.000000
-2428.398822 -393.663660 -928.000000
-2428.312628 -395.661802 -928.000000
-2428.226434 -397.659944 -928.000000
-2428.140239 -399.658086 -928.000000
-2428.054045 -401.656227 -928.000000
-2427.967851 -403.654369 -928.000000
-2427.881656 -405.652511 -928.000000
-2427.795462 -407.650653 -928.000000
-2427.709268 -409.648795 -928.000000
-2427.623073 -411.646936 -928.000000
-2427.536879 -413.645078 -928.000000
-2427.450685 -415.643220 -928.000000
-2427.364490 -417.641362 -928.000000
-2427.278296 -419.639503 -928.000000
-2427.192102 -421.637645 -928.000000
-2427.105907 -423.635787 -928.000000
-2427.019713 -425.633929 -928.000000
-2426.933519 -427.632071 -928.000000
-2426.847324 -429.630212 -928.000000
-2426.761130 -431.628354 -928.000000
-2426.674935 -433.626496 -928.000000
-2426.588741 -435.624638 -928.000000
-2426.502547 -437.622779 -928.000000
-2426.416352 -439.620921 -928.000000
-2426.330158 -441.619063 -928.000000
-2426.243964 -443.617205 -928.000000
-2426.157769 -445.615346 -928.000000
-2426.071575 -447.613488 -928.000000
-2425.985381 -449.611630 -928.000000
-2425.899186 -451.609772 -928.000000
-2425.812992 -453.607914 -928.000000
-2425.726798 -455.606055 -928.000000
-2425.640603 -457.604197 -928.000000
-2425.554409 -459.602339 -928.000000
-2425.468215 -461.600481 -928.000000
-2425.382020 -463.598622 -928.000000
-2425.295826 -465.596764 -928.000000
-2425.209632 -467.594906 -928.000000
-2425.123437 -469.593048 -928.000000
-2425.037243 -471.591189 -928.000000
-2424.951048 -473.589331 -928.000000
-2424.864854 -475.587473 -928.000000
-2424.778660 -477.585615 -928.000000
-2424.692465 -479.583757 -928.000000
-2424.606271 -481.581898 -928.000000
-2424.520077 -483.580040 -928.000000
-2424.433882 -485.578182 -928.000000
-2424.347688 -487.576324 -928.000000
-2424.261494 -489.574465 -928.000000
-2424.175299 -491.572607 -928.000000
-2424.089105 -493.570749 -928.000000
-2424.002911 -495.568891 -928.000000
-2423.916716 -497.567032 -928.000000
-2423.830522 -499.565174 -928.000000
-2423.744328 -501.563316 -928.000000
-2423.658133 -503.561458 -928.000000
-2423.571939 -505.559600 -928.000000
-2423.485744 -507.557741 -928.000000
-2423.399550 -509.555883 -928.000000
-2423.313356 -511.554025 -928.000000
-2423.227161 -513.552167 -928.000000
-2423.140967 -515.550308 -928.000000
-2423.054773 -517.548450 -928.000000
-2422.968578 -519.546592 -928.000000
-2422.882384 -521.544734 -928.000000
-2422.796190 -523.542875 -928.000000
-2422.709995 -525.541017 -928.000000
-2422.623801 -527.539159 -928.000000
-2422.537607 -529.537301 -928.000000
-2422.451412 -531.535443 -928.000000
-2422.365218 -533.533584 -928.000000
-2422.279024 -535.531726 -928.000000
-2422.192829 -537.529868 -928.000000
-2422.106635 -539.528010 -928.000000
-2422.020441 -541.526151 -928.000000
-2421.934246 -543.524293 -928.000000
-2421.848052 -545.522435 -928.000000
-2421.761857 -547.520577 -928.000000
-2421.675663 -549.518718 -928.000000
-2421.589469 -551.516860 -928.000000
-2421.503274 -553.515002 -928.000000
-2421.417080 -555.513144 -928.000000
-2421.330886 -557.511286 -928.000000
-2421.244691 -559.509427 -928.000000
-2421.158497 -561.507569 -928.000000
-2421.072303 -563.505711 -928.000000
-2420.986108 -565.503853 -928.000000
-2420.899914 -567.501994 -928.000000
-2420.813720 -569.500136 -928.000000
-2420.727525 -571.498278 -928.000000
-2420.641331 -573.496420 -928.000000
-2420.555137 -575.494561 -928.000000
-2420.468942 -577.492703 -928.000000
-2420.382748 -579.490845 -928.000000
-2420.296554 -581.488987 -928.000000
-2420.210359 -583.487129 -928.000000
-2420.124165 -585.485270 -928.000000
-2420.037970 -587.483412 -928.000000
-2419.951776 -589.481554 -928.000000
-2419.865582 -591.479696 -928.000000
-2419.779387 -593.477837 -928.000000
-2419.693193 -595.475979 -928.000000
-2419.606999 -597.474121 -928.000000
-2419.520804 -599.472263 -928.000000
-2419.434610 -601.470405 -928.000000
-2419.348416 -603.468546 -928.000000
-2419.262221 -605.466688 -928.000000
-2419.176027 -607.464830 -928.000000
-2419.089833 -609.462972 -928.000000
-2419.003638 -611.461113 -928.000000
-2418.917444 -613.459255 -928.000000
-2418.831250 -615.457397 -928.000000
-2418.745055 -617.455539 -928.000000
-2418.658861 -619.453680 -928.000000
-2418.572666 -621.451822 -928.000000
-2418.486472 -623.449964 -928.000000
-2418.400278 -625.448106 -928.000000
-2418.314083 -627.446248 -928.000000
-2418.227889 -629.444389 -928.000000
-2418.141695 -631.442531 -928.000000
-2418.055500 -633.440673 -928.000000
-2417.969306 -635.438815 -928.000000
-2417.883112 -637.436956 -928.000000
-2417.796917 -639.435098 -928.000000
-2417.710723 -641.433240 -928.000000
-2417.624529 -643.431382 -928.000000
-2417.538334 -645.429523 -928.000000
-2417.452140 -647.427665 -928.000000
-2417.365946 -649.425807 -928.000000
-2417.279751 -651.423949 -928.000000
-2417.193557 -653.422091 -928.000000
-2417.107363 -655.420232 -928.000000
-2417.021168 -657.418374 -928.000000
-2416.934974 -659.416516 -928.000000
-2416.848779 -661.414658 -928.000000
-2416.762585 -663.412799 -928.000000
-2416.676391 -665.410941 -928.000000
-2416.590196 -667.409083 -928.000000
-2416.504002 -669.407225 -928.000000
-2416.417808 -671.405366 -928.000000
-2416.331613 -673.403508 -928.000000
-2416.245419 -675.401650 -928.000000
-2416.159225 -677.399792 -928.000000
-2416.073030 -679.397934 -928.000000
-2415.986836 -681.396075 -928.000000
-2415.900642 -683.394217 -928.000000
-2415.814447 -685.392359 -928.000000
-2415.728253 -687.390501 -928.000000
-2415.642059 -689.388642 -928.000000
-2415.555864 -691.386784 -928.000000
-2415.469670 -693.384926 -928.000000
-2415.383476 -695.383068 -928.000000
-2415.297281 -697.381209 -928.000000
-2415.211087 -699.379351 -928.000000
-2415.124892 -701.377493 -928.000000
-2415.038698 -703.375635 -928.000000
-2414.952504 -705.373777 -928.000000
-2414.866309 -707.371918 -928.000000
-2414.780115 -709.370060 -928.000000
-2414.693921 -711.368202 -928.000000
-2414.607726 -713.366344 -928.000000
-2414.521532 -715.364485 -928.000000
-2414.435338 -717.362627 -928.000000
-2414.349143 -719.360769 -928.000000
-2414.262949 -721.358911 -928.000000
-2414.176755 -723.357052 -928.000000
-2414.090560 -725.355194 -928.000000
-2414.004366 -727.353336 -928.000000
-2413.918172 -729.351478 -928.000000
-2413.831977 -731.349620 -928.000000
-2413.745783 -733.347761 -928.000000
-2413.659588 -735.345903 -928.000000
-2413.573394 -737.344045 -928.000000
-2413.487200 -739.342187 -928.000000
-2413.401005 -741.340328 -928.000000
-2413.314811 -743.338470 -928.000000
-2413.228617 -745.336612 -928.000000
-2413.142422 -747.334754 -928.000000
-2413.056228 -749.332896 -928.000000
-2412.970034 -751.331037 -928.000000
-2412.883839 -753.329179 -928.000000
-2412.797645 -755.327321 -928.000000
-2412.711451 -757.325463 -928.000000
-2412.625256 -759.323604 -928.000000
-2412.539062 -761.321746 -928.000000
-2412.452868 -763.319888 -928.000000
-2412.366673 -765.318030 -928.000000
-2412.280479 -767.316171 -928.000000
-2412.194285 -769.314313 -928.000000
-2412.108090 -771.312455 -928.000000
-2412.021896 -773.310597 -928.000000
-2411.935701 -775.308739 -928.000000
-2411.849507 -777.306880 -928.000000
-2411.763313 -779.305022 -928.000000
-2411.677118 -781.303164 -928.000000
-2411.590924 -783.301306 -928.000000
-2411.504730 -785.299447 -928.000000
-2411.418535 -787.297589 -928.000000
-2411.332341 -789.295731 -928.000000
-2411.246147 -791.293873 -928.000000
-2411.159952 -793.292014 -928.000000
-2411.073758 -795.290156 -928.000000
-2410.987564 -797.288298 -928.000000
-2410.901369 -799.286440 -928.000000
-2410.815175 -801.284582 -928.000000
-2410.728981 -803.282723 -928.000000
-2410.642786 -805.280865 -928.000000
-2410.556592 -807.279007 -928.000000
-2410.470398 -809.277149 -928.000000
-2410.384203 -811.275290 -928.000000
-2410.298009 -813.273432 -928.000000
-2410.211814 -815.271574 -928.000000
-2410.125620 -817.269716 -928.000000
-2410.039426 -819.267857 -928.000000
-2409.953231 -821.265999 -928.000000
-2409.867037 -823.264141 -928.000000
-2409.780843 -825.262283 -928.000000
-2409.694648 -827.260425 -928.000000
-2409.608454 -829.258566 -928.000000
-2409.522260 -831.256708 -928.000000
-2409.436065 -833.254850 -928.000000
-2409.349871 -835.252992 -928.000000
-2409.263677 -837.251133 -928.000000
-2409.177482 -839.249275 -928.000000
-2409.091288 -841.247417 -928.000000
-2409.005094 -843.245559 -928.000000
-2408.918899 -845.243700 -928.000000
-2408.832705 -847.241842 -928.000000
-2408.746510 -849.239984 -928.000000
-2408.660316 -851.238126 -928.000000
-2408.574122 -853.236268 -928.000000
-2408.487927 -855.234409 -928.000000
-2408.401733 -857.232551 -928.000000
-2408.315539 -859.230693 -928.000000
-2408.229344 -861.228835 -928.000000
-2408.143150 -863.226976 -928.000000
-2408.056956 -865.225118 -928.000000
-2407.970761 -867.223260 -928.000000
-2407.884567 -869.221402 -928.000000
-2407.798373 -871.219543 -928.000000
-2407.712178 -873.217685 -928.000000
-2407.625984 -875.215827 -928.000000
-2407.539790 -877.213969 -928.000000
-2407.453595 -879.212111 -928.000000
-2407.367401 -881.210252 -928.000000
-2407.281207 -883.208394 -928.000000
-2407.195012 -885.206536 -928.000000
-2407.108818 -887.204678 -928.000000
-2407.022623 -889.202819 -928.000000
-2406.936429 -891.200961 -928.000000
-2406.850235 -893.199103 -928.000000
-2406.764040 -895.197245 -928.000000
-2406.677846 -897.195387 -928.000000
-2406.591652 -899.193528 -928.000000
-2406.505457 -901.191670 -928.000000
-2406.419263 -903.189812 -928.000000
-2406.333069 -905.187954 -928.000000
-2406.246874 -907.186095 -928.000000
-2406.160680 -909.184237 -928.000000
-2406.074486 -911.182379 -928.000000
-2405.988291 -913.180521 -928.000000
-2405.902097 -915.178662 -928.000000
-2405.815903 -917.176804 -928.000000
-2405.729708 -919.174946 -928.000000
-2405.643514 -921.173088 -928.000000
-2405.557320 -923.171230 -928.000000
-2405.471125 -925.169371 -928.000000
-2405.384931 -927.167513 -928.000000
-2405.298736 -929.165655 -928.000000
-2405.212542 -931.163797 -928.000000
-2405.126348 -933.161938 -928.000000
-2405.040153 -935.160080 -928.000000
-2404.953959 -937.158222 -928.000000
-2404.867765 -939.156364 -928.000000
-2404.781570 -941.154505 -928.000000
-2404.695376 -943.152647 -928.000000
-2404.609182 -945.150789 -928.000000
-2404.522987 -947.148931 -928.000000
-2404.436793 -949.147073 -928.000000
-2404.350599 -951.145214 -928.000000
-2404.264404 -953.143356 -928.000000
-2404.178210 -955.141498 -928.000000
-2404.092016 -957.139640 -928.000000
-2404.005821 -959.137781 -928.000000
-2403.919627 -961.135923 -928.000000
-2403.833432 -963.134065 -928.000000
-2403.747238 -965.132207 -928.000000
-2403.661044 -967.130348 -928.000000
-2403.574849 -969.128490 -928.000000
-2403.488655 -971.126632 -928.000000
-2403.402461 -973.124774 -928.000000
-2403.316266 -975.122916 -928.000000
-2403.230072 -977.121057 -928.000000
-2403.143878 -979.119199 -928.000000
-2403.057683 -981.117341 -928.000000
-2402.971489 -983.115483 -928.000000
-2402.885295 -985.113624 -928.000000
-2402.799100 -987.111766 -928.000000
-2402.712906 -989.109908 -928.000000
-2402.626712 -991.108050 -928.000000
-2402.540517 -993.106191 -928.000000
-2402.454323 -995.104333 -928.000000
-2402.368129 -997.102475 -928.000000
-2402.281934 -999.100617 -928.000000
-2402.195740 -1001.098759 -928.000000
-2402.109545 -1003.096900 -928.000000
-2402.023351 -1005.095042 -928.000000
-2401.937157 -1007.093184 -928.000000
-2401.850962 -1009.091326 -928.000000
-2401.764768 -1011.089467 -928.000000
-2401.678574 -1013.087609 -928.000000
-2401.592379 -1015.085751 -928.000000
-2401.506185 -1017.083893 -928.000000
-2401.419991 -1019.082034 -928.000000
-2401.333796 -1021.080176 -928.000000
-2401.247602 -1023.078318 -928.000000
-2401.161408 -1025.076460 -928.000000
-2401.075213 -1027.074602 -928.000000
-2400.989019 -1029.072743 -928.000000
-2400.902825 -1031.070885 -928.000000
-2400.816630 -1033.069027 -928.000000
-2400.730436 -1035.067169 -928.000000
-2400.644242 -1037.065310 -928.000000
-2400.558047 -1039.063452 -928.000000
-2400.471853 -1041.061594 -928.000000
-2400.385658 -1043.059736 -928.000000
-2400.299464 -1045.057877 -928.000000
-2400.213270 -1047.056019 -928.000000
-2400.127075 -1049.054161 -928.000000
